# 3D point list with one line of data per point:
#   POINT3D_ID, X, Y, Z, R, G, B, ERROR, TRACK[] as (IMAGE_ID, POINT2D_IDX)
# Number of points: 98, mean track length: 3.2142857142857144
1 -6.4713591081799366 -3.9480281356996634 18.014446689986066 69 69 69 0.24855235884061683 3 99 2 85 1 56 4 98
2 -6.4713591081799366 -3.9480281356996634 18.014446689986066 69 69 69 0.24855235884061683 3 100 2 86 1 57 4 99
3 -6.359677535837263 -3.8061439564437909 18.007618387139321 60 62 61 0.039126891053476248 3 115 2 97
4 -8.8800885750926177 -3.8620920208204952 18.330358519404854 59 60 57 0.081625339387215307 3 117 2 93 1 62
5 -8.8800885750926177 -3.8620920208204952 18.330358519404854 59 60 57 0.081625339387215307 3 118 2 92 1 63
6 -8.6784671249558212 -3.8205262452400022 18.306291671940926 14 12 6 0.16699404035114832 3 126 2 101 1 67 4 111
7 -8.9817446985222062 -3.6038005649420426 18.339958592530774 65 63 58 0.27168557660809739 3 147 2 1430 4 1466
8 -8.6115433585816756 -3.5077626537775424 18.292921182495508 17 11 9 0.29013669176810319 3 155 2 1436 1 92 2 123
9 -8.254710234545545 -3.5016500374435715 18.23790263772365 11 9 9 0.2053601284347859 3 157 2 124 1 1346 2 1437
10 -6.257021701603712 -3.3085592377353374 18.052246972529971 56 56 54 0.86661484017289903 3 171 2 137
11 -8.7604263992135873 -3.3682010590699849 18.294209110491792 11 10 2 0.18859359591208513 3 172 2 134
12 -6.3948745123160533 -3.2815322733545802 17.998394502917165 10 4 2 0.034902956739794128 3 176 2 136
13 -6.4596488639335945 -3.2074927113522222 18.007974496235231 52 50 47 0.062382202191356428 3 179 2 138
14 -6.4596488639335945 -3.2074927113522222 18.007974496235231 52 50 47 0.062382202191356428 3 180 2 139
15 -6.4168936477111318 -2.6621202316847863 18.919403477165751 47 47 44 0.32098487336328207 3 215 2 150 4 1506
16 -9.1553870955339001 -0.08636257410468362 24.166320527081233 99 99 101 0.072344912321984339 3 444 2 346
17 -9.1449630217753466 0.48678426760888227 24.12502811516093 61 65 70 0.26333660979035778 3 498 2 400 1 304
18 0.55313641707749839 2.5186295348878902 16.587717760752341 55 61 64 0.24074140646538175 3 856 2 721 1 680
19 -0.98030498111758713 -4.4172647247813472 17.250573190503296 101 115 118 0.34454191339723095 3 1492 2 1393
20 -8.1720096273524945 -3.9511978172249975 18.224045474427076 15 11 11 0.098065950514668154 3 1506 2 1402 1 1331 4 1445
21 -6.7565640000461018 -3.7986852526999666 18.063374542598076 64 64 64 0.10457976593765526 3 1509 2 100
22 -8.2214380272234369 -3.8293137349921609 18.255107788387296 70 72 69 0.18166056498326399 3 1512 2 1414 1 1337 4 1452
23 -8.6372603756795492 -3.7182536659312126 18.307205432653465 64 67 60 0.20182374838889702 3 1521 2 2269 1 2174
24 -6.0878419380488014 -3.6505940991388486 17.963297002131171 64 67 66 0.24069709950078455 3 1522 2 1422 1 1344 4 1458
25 -6.0929032392917781 -3.651219052871848 17.983472049637914 64 67 66 0.14953176723985556 3 1523 2 1423
26 -4.8429552335208239 -3.442629739368567 17.750802688261821 12 9 9 0.47479504700522879 3 1531 2 1441 1 1355 4 1475
27 -6.9858392631500221 -3.4948467862801551 18.110252299615297 5 5 11 0.080933768010932647 3 1532 2 1438 1 1349
28 -7.75127384757507 -3.4168756048914282 18.182956542680607 65 63 57 0.061913013344441215 3 1539 2 1450 1 1352 4 1481
29 -7.75127384757507 -3.4168756048914282 18.182956542680607 65 63 57 0.061913013344441215 3 1540 2 1451 1 1351 4 1482
30 -1.006464755782801 -2.7501748026077419 17.122903766343352 69 70 67 0.65469911428298011 3 1543 2 1461 1 117 4 1492
31 -1.006464755782801 -2.7501748026077419 17.122903766343352 69 70 67 0.65469911428298011 3 1544 2 1462 1 116 4 1493
32 -2.193356298467855 -1.5812420861316139 11.566962474569944 81 80 74 2.3064181198817066 3 1553 2 1468 4 1508
34 -8.82072329632798 -0.13417298698103869 24.210247852973485 39 43 57 0.39191730433934946 3 1667 2 1580 1 1486 4 1647
35 -4.4813793296180542 0.0081372923510237699 23.242383623042926 121 111 126 0.35990676651256048 3 1674 2 1584 1 1497 4 1653
36 -4.1611011152644348 0.73422686657937375 25.170571746127806 78 84 125 0.85952716395094753 3 1713 2 1609 1 1526
37 0.48556792950073846 1.8808708859536756 16.650950380107364 26 26 27 0.09982935882938046 3 1863 2 1736 1 1653 4 1822
38 0.47223595228913484 2.5800349512133067 16.602666325113244 27 31 32 0.34399730945654716 3 1940 2 1820 1 1730 4 2561
39 -3.0873342471737697 2.5084285503498949 12.626320130520128 62 61 58 0.63152388532015857 3 2023 2 832 1 803 4 1974
40 -3.0873342471737697 2.5084285503498949 12.626320130520128 62 61 58 0.63152388532015857 3 2024 2 833 1 804 4 1975
41 -3.0758001169465876 2.6287883563687173 12.646133482130082 55 57 51 0.52879897875410542 3 2031 2 865 1 1828
42 -3.0758001169465876 2.6287883563687173 12.646133482130082 55 57 51 0.52879897875410542 3 2032 2 864 1 1829
43 -3.965490089967652 5.6094652064321053 23.522346498672459 43 40 33 0.069895448215095579 3 2064 2 933
44 -5.9228300126458615 -3.7035534136959978 17.940518078844416 16 13 19 0.23536479208414976 3 2353 2 2266 1 2175 4 2323
45 -5.9241400932836603 -3.7062619955182607 17.958283153776058 16 13 19 0.15048561102866273 3 2354 2 2267 1 2176
46 -7.0475769756739366 -3.6187510789279265 18.106103585369834 63 63 60 0.14264975744277011 3 2360 2 2276 1 2177 4 2329
47 -5.3658104953123509 -3.5694098529162543 17.847761231870141 66 68 65 0.24644395036227817 3 2366 2 2278 4 2330
48 -8.5124653650017699 -3.6131034970666391 18.240851003615642 14 9 7 0.63658325185623077 3 2367 2 2275 4 1467
49 -5.8119607494436698 -3.5653289548260019 17.900030144029071 66 67 66 0.20480657650021777 3 2368 2 2277 1 2179 4 2333
50 -8.8315629055342697 -3.5560947791467319 18.303266867670924 22 13 15 0.23539051112397205 3 2371 2 2280 1 2178 4 2337
51 -8.8442905661223818 -3.5573637530273099 18.320952512424025 22 13 15 0.12793098390301003 3 2372 2 2281 4 2338
52 -7.1058002674229668 -3.5120074128704939 18.105155030140963 61 63 61 0.12901253645481289 3 2373 2 2282 4 1473
53 -5.7172609514664368 -3.4623775967606178 17.906792370418145 10 10 10 0.18450349905939892 3 2374 2 2289 1 2180
54 -3.6641361205461038 -2.0580514071320963 19.236526958198318 145 140 123 1.1273887227593218 3 2394 2 1497 1 2196
55 -8.3088602640893221 -0.45152029726388082 23.983656613441799 70 75 112 0.21425268003321274 3 2462 2 1569 1 2235
56 -4.345417860957216 0.1449367253235172 23.200868764007442 89 76 90 0.3689963676839253 3 2486 2 2382 1 2263 4 2442
57 -11.496449821663722 1.2388936452578336 21.12901057112218 67 50 61 0.47303543637237744 3 2515 2 1645 1 1555
58 -0.87061154367919413 -2.6924468843085148 17.108996953843995 15 8 13 0.48095631973049746 3 2824 2 2733 1 2599 4 2765
59 -6.2191413811200018 -4.1530736698713628 17.959871911903253 21 18 20 0.14344457116745196 3 3492 2 3369 1 3197 4 3437
60 -12.48715194850306 -2.5138621437966222 20.518383269758342 24 11 12 1.620224617121075 3 3494 2 3259 1 3101 4 3446
61 -3.4401510234126338 -2.3542335428626577 19.278074392526538 19 10 11 0.36025847704637415 3 3497 2 3379 1 3203 4 3445
62 -8.4775167223195655 -4.152649844638078 18.220785123048174 25 21 21 0.27079056508482657 3 3587 2 3462 1 3196 4 3549
63 -5.1755977990283943 -4.0357828399108815 17.625039356347937 22 18 18 0.68335189683146991 3 3589 2 3463 4 3550
64 -8.1503923122873196 -4.07069595913753 18.245266053079558 70 77 79 0.086430244326405128 3 94 1 49 4 93
65 -5.6175167463297448 -3.6664164653280378 17.634594089164398 1 4 1 0.21245453451224316 2 107 1 81
66 -6.3747522424336367 -3.2752155598696833 17.965845596423851 10 8 9 0.053544676914675203 3 177 1 104 4 150
67 -0.97601196478746821 -4.406356591115614 17.235370358188288 108 119 126 0.43994139854280795 2 1394 3 1491 1 1320
68 -6.3187400606262107 -2.6037192509323153 18.931752801686844 97 101 101 0.25397045972234999 3 1554 1 1370 4 1509
69 -5.3176836073500553 -2.4556610054528627 20.696039283077052 145 144 145 0.25263267853937332 2 1474 3 2389 1 1382 4 2350
70 -4.1629146502065799 -1.4916997241457082 12.499531891024361 139 141 141 1.3748202178467368 3 1561 1 1384
71 -8.4160694281031265 -0.037498292399188865 24.090178440151821 78 84 114 0.3679006044444828 2 348 3 1671 1 1489 4 1649
72 0.47468816865521402 2.5787877601327058 16.610573601776718 35 40 44 0.33441098203766778 2 1821 3 1939 1 1729
73 -0.52096445516415546 -2.6857463646275583 17.136002694179883 13 8 12 0.52541056043985446 2 2299 3 2383 1 2184 4 2346
74 0.84271805921900289 2.0810723591901743 16.62144957081459 55 59 58 0.084012394340989505 3 2566 1 2366 4 2534
75 1.1535159371531651 2.5868133182036486 16.471874533682566 30 38 41 0.30222347013952183 3 2595 1 2396 4 2562
76 -7.8644530359438436 -2.307774345509225 21.392507492569631 153 153 153 0.6993205952197703 2 3382 3 3498 1 3205 4 3451
77 -3.8617658025587049 -2.0184062226578421 19.294806056846259 157 156 160 0.61393681596247951 2 3383 3 3500 1 3208 4 3453
78 -6.5642359739729885 -3.54916598024962 18.001539455114017 7 9 9 0.20171367569792401 2 119 1 90 4 132
79 -5.0216266788206285 -3.4323443049145173 17.026699480044499 9 10 11 0.43214102104576124 2 1425 1 1345 4 1462
80 -6.03586694469268 -3.8302958280122632 18.007594523088166 66 68 67 0.52299320383461023 2 2260 1 2172 4 1448
81 -6.03586694469268 -3.8302958280122632 18.007594523088166 66 68 67 0.52299320383461023 2 2261 1 2173 4 1449
82 -6.2274496022178516 -3.6924886870902163 17.954761043013367 20 11 12 0.28409960190012157 2 2725 1 2598 4 2761
83 -8.2208301868760643 -3.8259960356534441 18.251434994882487 73 77 77 0.1368888615965905 2 1415 1 1338 4 1453
84 -8.7176915707235221 -3.4679379376491859 18.299984300269756 56 65 63 0.15476224145802203 2 1447 1 1347 4 1479
85 -3.6411198513403997 -2.3360987515822647 19.636528276481897 139 141 141 0.075440899967118918 2 1475 1 1383
86 -7.6025565068859828 -4.1291636595660064 21.797688063520848 59 60 49 0.74911298394597414 2 129 3 163 4 140
87 -12.280828843624191 -2.5029841870550009 21.545662243616295 73 68 58 0.32787494969228304 1 121 2 163 4 216
88 -13.353607617133472 -5.0226407744984218 18.758805513270506 134 150 161 0.76060123080581199 1 1295 2 1387 4 1426
89 -12.467787935689589 -4.5867499110523786 18.578208550674596 107 112 116 0.12460719437861273 1 1301 2 65 4 1432
90 -12.593085800546472 -4.4444842705988652 18.553273530096504 105 107 111 0.04633900387042119 2 73 4 1435 1 1306
91 -12.527459794977243 -2.9492633124191499 18.568382621942483 77 75 75 0.30573853633232212 1 1359 4 1497 2 1460
92 -12.527459794977243 -2.9492633124191503 18.568382621942483 77 75 75 0.30573853633232206 1 1360 2 1459 4 1498
93 -12.978031627661354 -2.8757428387247459 18.610132888230268 18 11 14 0.25115657753646886 1 1361 2 1463 4 1502
94 -10.018914904175871 -0.73173014638331102 19.734538678263302 49 41 46 0.13583085304806411 1 1455 2 299 4 1588
95 -9.6775392930207609 -0.63605882283742654 24.457542509441119 44 50 54 0.50720976186115785 2 1562 3 1634 4 1612
96 -8.4185695230443347 -0.27600244734497159 24.276936207754307 39 47 93 0.27313699052953294 2 2365 4 1639 1 2239
97 -4.0907614085648056 0.13862781097348975 23.089710692523703 81 67 101 0.5008476195670073 1 2262 3 2487 4 1664 2 2383
98 -3.6875627592763509 6.1650457191626877 23.743455727215903 154 150 135 0.85985853633969322 2 979 3 2091 4 2060
99 -7.6754239613824069 -2.7562738567036917 23.352965317421294 115 114 106 0.48364301415157224 1 2188 2 2309 4 2777
