# 3D point list with one line of data per point:
#   POINT3D_ID, X, Y, Z, R, G, B, ERROR, TRACK[] as (IMAGE_ID, POINT2D_IDX)
# Number of points: 133, mean track length: 2.9774436090225564
1 -6.9304790380231394 -18.333624364933147 30.484671652322525 65 44 42 0.9437497888395916 3 0 1 1
2 -6.7127689850499399 -18.202096410056715 30.745487602480029 203 191 155 0.71495853673401144 3 1 1 1126
3 3.1165327409891086 -4.4318504222521442 15.923969461892469 32 38 37 0.8556605252746895 3 43 1 35 4 1529
4 -21.679531285231381 -4.8206614334372766 27.587118460397953 78 54 36 0.23670962753088465 3 121 1 146 2 121
5 -13.618789190550011 -3.5711543328852819 27.773577748514978 50 55 54 0.085028089845540028 3 148 1 169
6 8.0894777620843907 -2.0305648044586295 19.660872517980714 67 94 106 0.14075883934583969 3 173 1 202 4 130
7 -0.65164268951092363 -1.2103508011361563 28.722905806095604 15 16 31 0.4488242483127543 3 301 1 346 4 251
8 -0.3590584325966113 -0.56527910193042719 28.846884226785246 11 13 25 0.23374143129501035 3 380 1 423
9 -7.1210864187189831 1.5784906360574134 25.989805812886463 47 48 35 0.19110466609139337 3 716 1 686
10 -7.1210864187189831 1.5784906360574134 25.989805812886463 47 48 35 0.19110466609139337 3 717 1 687
11 -21.839769590375845 -5.6603483810715121 27.618729671640505 255 255 235 0.3054544484590333 3 1667 1 86 2 71
12 -22.019923485909494 -5.2484039680494776 27.630341903281611 255 253 216 0.20479535745051702 3 1693 1 1184 2 1182
13 -22.328959042839816 -4.8948096650656012 27.676874206560424 80 56 15 0.76225871218617536 3 1720 1 1203 2 117
14 -4.60940382035042 -4.5992497119750171 26.495082244894455 11 7 11 0.61172518542731114 3 1721 1 1189 2 1734 3 3241
15 8.1298092481240207 -2.5851176455840785 19.774359640297551 117 139 157 0.64452619163858504 3 1743 1 1783 4 1561
16 -13.492152947651812 -3.6418680140901278 27.801699004268041 78 86 87 0.16186662757303985 3 1745 1 1222 2 1213
17 7.0468405803069567 -3.336779739722592 29.469877173124178 114 76 72 0.33793752149767292 3 1762 1 1225 2 133 4 1571
18 -6.8798244722346169 -2.4969509607191473 26.010492569426038 61 62 59 0.56832776192974954 3 1783 1 1266
19 6.51305675211779 -2.7262606337919397 29.29577553966524 93 87 78 0.37400929819591333 3 1788 1 215
20 0.96986317243421616 -1.292313536675515 28.986420420067667 17 53 48 0.31309149491256999 3 1862 1 1319 4 1662
21 -0.055958961922164763 -1.1389008387934096 28.907352956974169 47 45 58 0.4767991270325781 3 1876 1 360
22 8.1922898455301425 -1.3211621345811939 31.343265668817303 13 36 34 0.082450465426099309 3 1878 1 317 4 2547
23 8.1847650235356078 -0.97656870557272746 31.301398773985706 2 26 38 0.37548920880203784 3 1895 1 1333 4 2559
24 -8.5506131060105979 -0.65910319157454578 25.618469551287756 15 13 13 0.14177171967219249 3 1899 1 1388
25 -8.3067260083901466 -0.64295112938522991 25.636105382749935 18 6 4 0.20149152128952832 3 1901 1 442 4 1721
26 -6.8739055011573384 -0.53909259420104916 26.023559743657209 13 7 10 0.252440093862356 3 1914 1 1397
27 -7.6784399383275161 0.19219172279493973 25.832139120316789 46 45 39 0.2527826033265676 3 1978 1 547 4 2616
28 -19.357058953514276 0.99214641112411139 28.150611185266012 53 48 48 0.68325174077068551 3 2076 1 1516 2 669 4 1952
29 -7.284264319520168 1.5855020287453616 26.000856262236116 49 46 36 0.1688050445285158 3 2166 1 690
30 -15.909201355659956 2.5298897811589351 28.909227811164616 86 82 100 0.35540648466586638 3 2232 1 1578 2 1545
31 -4.8535989048529835 5.7840138177210454 28.860260998276029 81 93 86 0.36886968726333147 3 2417 1 858
32 -6.30265804470507 -18.26703477232552 31.207291095859564 186 170 140 1.3007868318912297 3 2686 1 1741
33 -21.973591297575087 -5.5605634659355765 27.588359486387702 70 41 24 0.06365848782921868 3 2704 1 1757 2 1736
34 -21.829416348692614 -5.1018295618106144 27.588118756913499 78 31 19 0.28232959058788482 3 2710 1 1767 2 1742
35 2.9180834524139225 -3.7683715496669872 28.263596224155243 255 255 246 0.17032088498986681 3 2719 1 1774 2 1745 4 2486
36 6.3391626527817859 -3.5348521847457217 29.215762129032587 255 255 231 0.37455859420087068 3 2726 1 1785 2 1751 4 2492
37 7.2077873752131678 -3.4820829251167265 29.481632415879851 255 255 238 0.34331102790132678 3 2729 1 1218 2 1752 4 2494
38 5.5909589078778721 -3.2387678804265354 29.014868113597 109 89 83 0.12994270940369324 3 2731 1 1228 2 1202
39 5.5909589078778721 -3.2387678804265354 29.014868113597 109 89 83 0.12994270940369324 3 2732 1 1229 2 1203
40 3.6768990229327612 -2.8276032296157667 28.445882095410077 255 255 234 0.24841629825883491 3 2741 1 1800 2 1218 4 2508
41 4.1463673676517487 -2.8544710858566154 28.62673896901774 255 255 234 0.16350938605484597 3 2742 1 1801 2 1756
42 6.9284963188824031 -2.8154470862107828 29.392202566753387 111 72 89 0.19290433476670982 3 2746 1 1247 2 1216 4 2510
43 6.9284963188824031 -2.8154470862107828 29.392202566753387 111 72 89 0.19290433476670982 3 2747 1 1248 2 1217 4 2511
44 -9.0441030435190388 -0.84416581597735973 25.454595554090318 43 39 39 0.091258056577073143 3 2786 1 1368 2 1332
45 -8.8352570419613023 -0.80821576334940803 25.567069397151585 46 44 44 0.22213600714585954 3 2789 1 1371 2 1334
46 -8.589264060044048 -0.81347694469529053 25.492641597520073 47 47 44 0.25245578510396988 3 2790 1 1871 4 2561
47 -6.7533274822447398 -0.69127030220137176 25.995630914487709 50 48 48 0.11617108367340517 3 2798 1 1875
48 2.1005718567933043 -0.26707721302974097 15.543914216015203 18 10 28 1.4223247243988755 3 2799 1 1396 4 2563
49 -7.1867393263396497 -0.4290280699581997 25.880379226567754 42 41 39 0.1704283294235901 3 2814 1 1406
50 -7.1867393263396497 -0.4290280699581997 25.880379226567754 42 41 39 0.1704283294235901 3 2815 1 1407
51 -6.9303943593707746 0.25104517931313031 25.920526266354617 41 43 39 0.16791096793063837 3 2846 1 1451
52 -6.9356019928774284 0.25003238081705942 25.989598471770975 41 43 39 0.43657746914036893 3 2847 1 1450 4 1805
53 -7.485961045004986 0.55632026782563693 25.957921185275858 44 44 39 0.33654333085736821 3 2871 1 1490 4 2641
54 -7.485961045004986 0.55632026782563693 25.957921185275858 44 44 39 0.33654333085736821 3 2872 1 1491 4 2640
55 -6.9891171869464115 0.59722558397914738 26.008739708439176 41 46 42 0.21011622086275722 3 2877 1 1924
56 -6.9891171869464115 0.59722558397914738 26.008739708439176 41 46 42 0.21011622086275722 3 2878 1 1923
57 -7.1375496127426636 0.7568105986396545 26.068516002687037 11 5 7 0.77929929556793587 3 2888 1 1935 4 2654
58 -7.3296109303520902 1.4266941127527726 25.875633554526949 14 9 7 0.10416684762117709 3 2942 1 1532
59 -7.3936773345403264 1.8858644730292045 25.810502934962006 37 37 37 0.11375820087877005 3 2976 1 1545 4 2742
60 3.366253581122181 -3.6898340971141028 28.341011082577179 244 255 254 0.25296352792157972 3 3246 1 1775 2 2017 4 2994
61 2.5924154849495507 -3.6158082300180725 28.126385860957456 98 84 72 0.14108802823025299 3 3247 1 1778 2 1746
62 5.2493832262274953 -3.6055041548187616 28.925880605218275 255 255 249 0.12550172328236964 3 3250 1 1782 2 1749 4 2998
63 6.8286181802030255 -3.1823443877388233 29.337792546891862 250 255 251 0.35481742887346718 3 3261 1 1793 4 3004
64 2.8302924915490699 -2.9038854620852552 28.165163682960156 255 255 242 0.24268610000998236 3 3262 1 1797 2 1754 4 3006
65 2.8302924915490699 -2.9038854620852552 28.165163682960156 255 255 242 0.24268610000998236 3 3263 1 1798 2 1755 4 3007
66 6.2608444921195394 -2.7024973126517549 29.19747975499704 254 255 249 0.30147144639789863 3 3271 1 1806 4 3012
67 6.7463455614459553 -2.6388259015678082 29.352174574394709 255 255 250 0.14358852820106632 3 3276 1 1809 2 1761 4 3014
68 -18.950374562321556 0.7786163776440187 30.686235854413599 250 241 255 0.13316603201162311 3 3354 1 2144 2 2099
69 -19.489010454024761 1.5893535885960559 29.523349428766757 78 78 90 0.30857108804899697 3 3391 1 2154 2 2112
70 3.645062589433131 -3.1596189486695754 28.416063437470282 97 89 89 0.44808179650109869 3 3592 1 2056 2 2192 4 3439
71 3.645062589433131 -3.1596189486695754 28.416063437470282 97 89 89 0.44808179650109869 3 3593 1 2057 2 2193 4 3440
72 3.3310459531470356 -2.9150613571984088 28.327267074038105 255 255 244 0.19476354848851168 3 3594 1 2062 2 2023 4 3262
73 6.6051493268056864 -2.9734155461393708 29.270857221797833 94 85 89 0.25787385054175532 3 3596 1 2061 2 2021 4 3263
74 6.6051493268056864 -2.9734155461393708 29.270857221797833 94 85 89 0.25787385054175532 3 3597 1 2060 2 2022 4 3264
75 5.5175117404821616 -2.8202434411630382 28.983376954269882 255 255 247 0.1245776628454591 3 3598 1 2064 2 2194 4 3265
76 5.5175117404821616 -2.8202434411630382 28.983376954269882 255 255 247 0.1245776628454591 3 3599 1 2065 2 2195 4 3266
77 7.4260287795292088 -1.2461335617679137 31.18659958849884 43 160 161 0.73429733526010077 3 3610 1 2269
78 -6.9573587537119455 -18.235998194467225 30.814141478042853 255 254 233 0.34894798726887422 3 3774 1 2377
79 8.3257130786557418 -3.3477625581500612 19.504552035156859 61 62 57 1.9149571093393256 3 3785 1 2472
80 2.767519421421305 -3.3534742397093447 28.136263327936632 68 80 87 0.13341902588728116 3 3903 1 2473 2 2425
81 4.4413426080518823 -3.2510561846453139 28.650976477967166 82 86 91 0.15253076528343257 3 3904 1 2385 2 2339 4 3562
82 5.044803352282055 -3.3875647142110155 28.823262039999104 171 147 142 0.26699822556534075 3 4002 1 2475 2 2424 4 3672
83 -1.5328319108688087 -2.3244101174336889 28.921720821899516 31 37 37 0.41390448550303621 3 4006 1 2550 4 3679
84 -8.3811137359803904 -0.7325043768064452 25.854160395683319 40 37 31 0.35951917614656065 3 4011 1 2560
85 -8.3811137359803904 -0.7325043768064452 25.854160395683319 40 37 31 0.35951917614656065 3 4012 1 2561
86 -23.540672225946775 -5.7090007053902259 27.814647388016379 39 20 11 0.73781293019924998 1 89 3 90 2 74
87 -23.049484469425405 -5.1296224456460182 27.858180785999807 253 247 207 0.26915268891883598 1 125 3 109 2 105
88 -23.049484469425405 -5.1296224456460182 27.858180785999807 253 247 207 0.26915268891883598 1 126 3 110 2 106
89 7.0537769425705852 -3.3516028273922545 29.528796622270601 101 72 78 0.15597032071579456 3 1763 2 132 4 1572
90 1.0455461669113004 -1.4609534199373437 29.258871066451718 62 151 153 0.37785305138432773 3 1850 2 267 4 1649
91 13.365564023632828 -0.63615894103595916 36.657585925243296 135 143 146 0.37223145239900335 1 1355 3 1936 2 319 4 1730
92 13.365564023632828 -0.63615894103595916 36.657585925243296 135 143 146 0.37223145239900335 1 1356 3 1937 2 320 4 1731
93 -6.167876467734299 -0.48268841848518962 25.576839997036355 7 9 14 0.12847890065860307 3 1918 2 418 4 2576
94 -9.8052258705761517 4.9870575429928827 25.2160747261598 28 31 33 0.58486490501258492 3 2413 2 838 4 2241
95 -22.019923485909494 -5.2484039680494776 27.630341903281611 254 249 197 0.20479535745051702 1 1183 3 1694 2 1183
96 -23.210228843515242 -5.317848126821664 27.948265179638916 46 43 3 0.30376744640095615 1 1766 3 1690 2 1184
97 -25.217839255893303 -5.091265613643932 28.367691768510202 67 51 5 0.17272270909068718 1 1772 3 1716 2 1197
98 5.1429928029849705 -3.1695084382019085 28.8994712354733 130 71 59 0.63330574716871757 1 172 2 1205 4 3002
99 13.734406561429253 0.16208630429798132 36.360268468945975 150 160 162 0.48097123885943444 3 1984 2 1331 4 1775
100 -15.909201355659956 2.5298897811589356 28.909227811164616 83 81 98 0.35540648466586638 1 1577 3 2233 2 1544
101 -25.149529355746012 -5.88147325518666 28.365482387531781 45 47 3 0.65786125351264069 1 1755 3 1661 2 1735
102 5.9499370763101904 -3.5607697874926996 29.126046687986328 254 253 255 0.34134831192127535 1 1784 2 1750 4 2491 3 2725
103 13.553521853916401 -0.81350663590004224 36.561894630350494 42 43 44 0.28965701307960001 1 1860 3 2810 2 1797 4 1717
104 -24.565488484516095 -4.7444983360350967 28.263345330081723 85 83 69 0.71740048903276554 1 2047 3 3242 2 2018
105 3.0722758866880238 -3.1033506648224809 28.287050654782977 72 73 75 0.52623060503025776 3 3258 2 2020 4 3001 2 1753
106 -0.99561551780677415 -4.8905880668784425 67.06708834854993 26 17 24 0.44689452154046405 1 2073 3 3286 2 2035
107 -0.99561551780677415 -4.8905880668784425 67.06708834854993 26 17 24 0.44689452154046405 1 2072 3 3287 2 2036
108 -19.612212309649856 -0.82390730798617628 32.509393336841555 32 21 33 0.16875739394959907 1 2112 3 3318 2 2080
109 -19.734028092920614 0.55517501411475689 31.092048792400725 255 246 255 0.29122943749295582 1 2298 3 3345 2 2095
110 -19.489010454024761 1.5893535885960559 29.523349428766757 78 82 97 0.30857108804899697 1 2155 3 3392 2 2111
111 -21.879649889092608 -4.4715871361936257 27.329920334746795 74 78 67 0.54792258598986687 1 2238 3 3786 2 2190
112 -19.213816731997923 -1.0801729175231971 32.3751852853458 106 99 108 0.26052276509421396 1 2409 3 3613 2 2233
113 -16.097594500282881 1.5803074025642616 28.942038137567465 57 48 70 0.18853494614156341 1 2314 3 3665 2 2265
114 -8.7858722176937096 -4.6211975827509875 25.450715299031089 18 11 13 1.8030752465168458 3 4141 2 2566 4 3839
115 7.6261689904829231 -1.8253825332804476 33.242893000208845 81 89 96 0.53311768644176372 1 1835 2 232
116 10.870894238596591 -1.8375001952224197 31.57913082251136 67 75 74 0.16892012664545872 1 276 2 1233 4 214
117 9.5017849669916465 -0.89659686115378112 31.791901182334009 21 16 8 0.4642795614593761 1 1855 2 1276 4 2560 3 3314
118 -19.721510794944063 -0.54938827545673441 32.460658080018085 110 104 110 0.31605234231959539 1 1898 2 1854 3 2818
119 -19.843801854644987 -0.12211336892752664 32.470326718035963 66 56 62 0.17470864922196469 1 2122 2 1877 3 3331
120 -21.211205124425732 2.0482161823858571 29.615030610779339 59 51 73 0.64673798726497922 1 1967 2 1931
121 -2.2711083554552838 -2.5426330105246593 71.741784045354507 254 252 234 0.49629301322460345 1 350 3 342 4 291
122 -2.1396115037110128 -2.2120395074822605 72.369307765932945 143 137 119 0.46165096490885321 1 369 3 360 4 303
124 5.5070518496875236 -3.0794272159028249 7.6924382917518015 22 23 20 0.48084279829962262 3 1626 4 1518
125 16.810044084734425 -1.557946517216714 32.741228175576367 18 4 3 0.58078400573259126 1 1298 3 289 4 1646
126 -0.19268209197203046 -1.1112640975768475 28.810962524321717 13 6 23 0.19299119501234838 2 313 3 311 4 1673
127 -0.4557252108892329 -0.88563365102315772 28.743986677277764 14 7 20 0.18529866310540757 2 348 4 1698
128 23.468111454953984 -0.92425257415011108 37.301528172224536 21 1 3 0.04462856793689611 1 347 4 1702
129 -7.2062994384634171 1.9198317032413825 25.934900190405529 36 36 36 0.19018407960606085 1 714 3 2978 4 2036
130 -7.2062994384634171 1.9198317032413825 25.934900190405529 36 36 36 0.19018407960606085 1 715 3 2977 4 2037
131 -14.171278419887917 1.0811045078293893 30.268132805892847 96 69 83 0.61762002500123192 2 1495 3 2908 4 2674
132 -7.3936773345403264 1.8858644730292045 25.810502934962006 39 39 36 0.11375820087877005 1 1544 3 2975 4 2743
133 1.9053540934832867 -0.10958193994790001 15.549103158990629 29 34 41 0.19164843327752296 1 1413 4 3045
134 5.5835076365662157 7.0618940337809875 44.099929320370677 70 87 77 2.0855803811953595 2 778 3 2347 4 1017
